# .PCD v0.7 - Point Cloud Data file format
VERSION 0.7
FIELDS x y z
SIZE 4 4 4
TYPE F F F
COUNT 1 1 1
WIDTH 1492
HEIGHT 1
VIEWPOINT 0 0 0 1 0 0 0
POINTS 1492
DATA ascii
-36.75547 23.341061 -1.5855752
-36.539268 23.853285 -1.591289
-35.574947 23.866535 -1.5644841
-33.253983 22.92063 -1.4771571
-33.745762 23.890444 -1.5145291
-32.878662 23.902365 -1.4913043
-32.040306 23.9139 -1.4691402
-31.228844 23.925077 -1.4479808
-30.442863 23.935905 -1.4277589
-29.647949 23.919813 -1.4068687
-28.94025 23.955349 -1.3898941
-28.222595 23.965239 -1.3722404
-27.525339 23.974848 -1.355343
-26.8473 23.984205 -1.33918
-26.187706 23.99333 -1.3237178
-25.545406 24.002188 -1.3089122
-24.919575 24.010841 -1.2947403
-24.282438 23.992611 -1.2797623
-23.713058 24.02627 -1.2681167
-23.132088 24.034302 -1.2556807
-22.564629 24.04216 -1.2437772
-22.010035 24.049843 -1.2323812
-21.467703 24.057348 -1.221471
-20.937031 24.064701 -1.2110281
-20.41758 24.071901 -1.2010367
-19.908791 24.078962 -1.1914794
-19.410151 24.085888 -1.1823367
-18.900267 24.065935 -1.1723008
-18.440708 24.098112 -1.1651841
-17.970036 24.104652 -1.1572088
-17.50782 24.111088 -1.1495935
-17.053728 24.117399 -1.1423308
-16.607389 24.123625 -1.135398
-16.16851 24.129726 -1.1287982
-15.736722 24.13575 -1.122512
-15.31175 24.14167 -1.1165407
-14.893245 24.147509 -1.1108611
-14.481054 24.153273 -1.1054736
-14.074804 24.158949 -1.1003686
-13.659086 24.137741 -1.0943089
-13.278501 24.168837 -1.0909189
-12.888733 24.174292 -1.0866181
-12.503964 24.179682 -1.0825686
-12.123981 24.185017 -1.0787683
-11.748598 24.190275 -1.0752132
-11.377639 24.195465 -1.0718879
-11.010869 24.200615 -1.0687999
-10.648102 24.205725 -1.0659393
-9.1647892 21.565083 -0.94710475
-9.1406469 22.281977 -0.97616422
-9.5821447 24.220703 -1.0586667
-9.2337141 24.225599 -1.0566727
-8.8884764 24.230461 -1.0548785
-8.0719748 22.890284 -0.99484342
-7.7600908 22.920238 -0.99463379
-7.4428797 22.927952 -0.99364543
-7.1280313 22.935608 -0.99284422
-6.8154578 22.943211 -0.9922235
-6.5049729 22.950758 -0.99177641
-6.1964903 22.958261 -0.99151152
-5.5532203 21.652905 -0.93474132
-5.5362487 22.772341 -0.98283172
-5.5796399 24.275969 -1.047654
-5.2603102 24.280491 -1.0479606
-4.9426398 24.284992 -1.0484462
-4.3812947 23.002399 -0.9935208
-4.0837069 23.009636 -0.9944464
-3.7872515 23.016846 -0.99553889
-3.4918118 23.024031 -0.9967981
-3.1973479 23.031191 -0.99822539
-2.9037139 23.03833 -0.99981719
-2.6108222 23.04545 -1.0015702
-2.2304544 22.176081 -0.9653334
-2.1380243 24.323648 -1.0606946
-1.8306183 24.328039 -1.0629375
-1.5236418 24.332417 -1.0653558
-1.1003282 22.001842 -0.96548384
-0.73279417 19.583754 -0.86144435
-0.49222445 19.817934 -0.8739816
-0.29861784 24.349939 -1.0767714
0.0074204635 24.35433 -1.0800699
0.31362522 24.358707 -1.0835456
0.62000519 24.363111 -1.0872012
0.92668837 24.367502 -1.0910416
1.233781 24.371922 -1.0950646
1.5413818 24.376335 -1.0992717
1.8495879 24.380762 -1.1036633
2.1585066 24.385206 -1.1082453
2.4654849 24.362602 -1.111787
2.7693601 24.310932 -1.1141756
3.090302 24.397392 -1.1230966
3.4030287 24.401909 -1.1284542
3.7169473 24.406437 -1.1340169
4.0322127 24.410997 -1.1397839
4.3489041 24.415571 -1.1457573
4.6671772 24.420166 -1.1519443
4.987052 24.424799 -1.1583401
5.3087134 24.429455 -1.1649585
5.6322694 24.434139 -1.1717999
5.957818 24.43885 -1.1788602
6.2855134 24.443615 -1.1861572
6.6154752 24.448395 -1.1936908
6.9478197 24.453215 -1.2014608
7.2826734 24.458076 -1.2094749
7.6201534 24.462999 -1.2177438
7.9516311 24.440779 -1.2249112
8.3032789 24.47168 -1.2349899
8.6495571 24.476721 -1.2440419
8.9991274 24.481802 -1.2533746
9.3520699 24.486942 -1.262984
9.7085819 24.492155 -1.2728845
10.068775 24.497416 -1.283084
10.43292 24.502716 -1.2935895
8.7640638 19.8859 -1.0583962
11.173637 24.513559 -1.3155446
11.550586 24.519072 -1.3270113
11.932214 24.524637 -1.3388238
12.318724 24.530308 -1.3509862
12.710325 24.536037 -1.3635166
13.107235 24.541862 -1.3764163
13.495422 24.521759 -1.388224
16.641853 29.359091 -1.6780344
32.292015 38.008133 -2.5700619
32.694679 37.515743 -2.5700619
33.09095 37.020252 -2.5700619
33.480736 36.52169 -2.5700619
33.86433 36.020241 -2.5700619
34.241409 35.51572 -2.5700619
34.612152 35.008415 -2.5700619
34.976425 34.498348 -2.5700619
35.334351 33.985569 -2.5700619
35.68597 33.470257 -2.5700619
36.031132 32.952339 -2.5700619
36.316013 32.383743 -2.5662503
36.377064 31.626081 -2.5472772
36.462509 30.903978 -2.5307748
36.568928 30.212378 -2.5164256
36.694893 29.548056 -2.5040872
36.843563 28.911716 -2.4938958
37.007076 28.295431 -2.4852831
37.184021 27.696918 -2.4781048
37.376667 27.116333 -2.4724772
37.587112 26.554073 -2.4684944
37.80695 26.002949 -2.4655833
38.042915 25.46665 -2.4641411
38.292583 24.94223 -2.4639986
38.555992 24.428835 -2.465116
38.833782 23.925852 -2.4675126
39.130302 23.434887 -2.4714415
39.457355 22.961548 -2.4776254
39.819313 22.506752 -2.4862952
40.219193 22.070055 -2.4975977
40.664085 21.653442 -2.5119345
41.152126 21.253448 -2.5291488
41.699638 20.876143 -2.5502017
42.224701 20.479061 -2.5700619
42.418873 19.918303 -2.5700619
42.606827 19.356417 -2.5700619
42.788643 18.793501 -2.5700619
42.964138 18.229555 -2.5700619
43.133682 17.664858 -2.5700619
43.297024 17.099112 -2.5700619
43.454155 16.532549 -2.5700619
43.605152 15.965173 -2.5700619
43.750191 15.397222 -2.5700619
43.889023 14.828476 -2.5700619
44.021744 14.259052 -2.5700619
44.148331 13.689092 -2.5700619
44.268925 13.118514 -2.5700619
44.383595 12.54752 -2.5700619
44.492039 11.975963 -2.5700619
44.594475 11.404163 -2.5700619
44.690723 10.831841 -2.5700619
44.781075 10.25926 -2.5700619
44.865604 9.6863804 -2.5700619
44.943935 9.1130953 -2.5700619
45.016289 8.5400171 -2.5700619
45.082546 7.9665556 -2.5700619
45.143005 7.3930516 -2.5700619
45.197495 6.8194604 -2.5700619
45.24601 6.2458801 -2.5700619
45.288548 5.6722331 -2.5700619
45.325214 5.0986972 -2.5700619
45.355808 4.5253263 -2.5700619
45.38065 3.952069 -2.5700619
45.399612 3.3790014 -2.5700619
45.412563 2.8061981 -2.5700619
45.419628 2.2336612 -2.5700619
45.420872 1.6613547 -2.5700619
45.416191 1.089431 -2.5700619
45.405663 0.51791245 -2.5700619
45.389305 -0.053083647 -2.5700619
45.367237 -0.62373006 -2.5700619
45.339149 -1.1938001 -2.5700619
45.305237 -1.7633277 -2.5700619
45.265625 -2.3322716 -2.5700619
45.22023 -2.9006133 -2.5700619
45.168736 -3.4682045 -2.5700619
42.75061 -3.8239489 -2.4355452
42.377583 -4.3284397 -2.4176619
42.313004 -4.8602839 -2.4176619
42.243023 -5.3913803 -2.4176619
42.167591 -5.9216709 -2.4176619
42.086796 -6.4510183 -2.4176619
42.000561 -6.9795403 -2.4176619
41.908848 -7.5071216 -2.4176619
41.811909 -8.0337543 -2.4176619
41.709404 -8.559351 -2.4176619
41.601612 -9.0839424 -2.4176619
16.732029 -3.8746104 -0.97502822
16.695053 -4.087955 -0.97565979
41.246021 -10.651098 -2.4176619
41.116684 -11.171113 -2.4176619
40.982094 -11.689969 -2.4176619
40.842171 -12.207526 -2.4176619
40.696808 -12.72385 -2.4176619
24.99962 -8.1626101 -1.4906594
38.552483 -13.126565 -2.3076582
37.093918 -13.152772 -2.2292533
35.729916 -13.177305 -2.156208
34.451267 -13.200291 -2.0880039
33.249771 -13.221887 -2.0241754
32.118542 -13.242206 -1.9643366
30.88662 -13.191181 -1.8980103
30.041723 -13.279538 -1.8551933
29.085745 -13.29671 -1.8053128
28.178741 -13.313021 -1.7582061
27.316664 -13.328513 -1.7136575
26.495993 -13.343254 -1.6714644
25.662655 -13.330793 -1.6282183
24.966919 -13.370746 -1.5934747
24.252932 -13.383574 -1.5573601
23.569511 -13.395855 -1.5229861
22.914499 -13.407621 -1.4902437
22.286022 -13.41892 -1.4590117
21.682198 -13.429772 -1.4291939
21.101501 -13.440201 -1.4006983
20.437075 -13.381237 -1.3664011
20.003767 -13.45994 -1.3473626
19.48407 -13.469275 -1.3223737
18.982246 -13.478293 -1.2984108
18.497231 -13.487 -1.2754197
18.028122 -13.495438 -1.253346
17.573944 -13.50359 -1.2321368
17.133854 -13.511498 -1.2117453
16.707085 -13.51918 -1.192129
16.292952 -13.526612 -1.1732498
15.890725 -13.533854 -1.155063
15.450341 -13.497712 -1.1338774
15.030069 -13.46753 -1.1140089
14.749514 -13.554357 -1.1043442
14.389087 -13.560835 -1.0886129
14.037817 -13.567149 -1.0734266
13.695302 -13.573309 -1.0587555
13.361058 -13.579309 -1.0445839
13.034657 -13.585173 -1.0308796
12.715803 -13.590896 -1.0176246
12.404123 -13.596501 -1.0048081
12.09923 -13.601982 -0.99240124
11.800864 -13.607341 -0.98039043
11.508708 -13.61259 -0.96876204
11.22246 -13.617754 -0.95749676
10.941917 -13.622778 -0.94658476
10.666776 -13.627729 -0.93600887
10.377426 -13.60718 -0.92402798
10.112888 -13.611913 -0.9141072
6.1229892 -8.4617386 -0.56207246
9.6157093 -13.646646 -0.89682341
9.3642263 -13.651158 -0.88774931
9.1169271 -13.655609 -0.87894744
8.8735676 -13.659965 -0.87040311
8.6340122 -13.664285 -0.86211485
8.3980684 -13.668519 -0.85406554
8.1656313 -13.672705 -0.84625
7.9364934 -13.676811 -0.83866423
7.7105393 -13.68088 -0.83129853
7.4876409 -13.684874 -0.82414579
7.2676916 -13.688835 -0.81719816
7.0505052 -13.692729 -0.81045407
6.8360043 -13.696598 -0.8039062
6.624052 -13.700402 -0.7975418
6.4145694 -13.704169 -0.79136688
6.2074022 -13.707897 -0.78536773
6.0024796 -13.711571 -0.77954525
5.799686 -13.715214 -0.77388942
5.5989623 -13.718824 -0.76840025
5.4001622 -13.722388 -0.7630713
5.1833739 -13.673562 -0.75499845
4.9986944 -13.703841 -0.75147796
4.7860737 -13.651651 -0.74359131
4.5953293 -13.655078 -0.7388525
4.4323211 -13.739788 -0.73871213
4.2434125 -13.743191 -0.73427093
4.0558701 -13.746558 -0.72996944
3.8696172 -13.749897 -0.72580016
3.6845849 -13.753223 -0.72176331
3.5007141 -13.756523 -0.71785462
3.3179469 -13.759814 -0.71407408
3.1361761 -13.763082 -0.71041381
2.9553714 -13.766325 -0.70687926
2.7754653 -13.769567 -0.70346373
2.5963695 -13.772789 -0.70016754
2.4180255 -13.775993 -0.69698513
2.2404039 -13.779179 -0.69391811
2.0634372 -13.782368 -0.69096345
1.8870457 -13.785524 -0.68812072
1.7111721 -13.788688 -0.68538725
1.5357771 -13.79184 -0.68276393
1.360792 -13.79498 -0.68024623
1.1861588 -13.798133 -0.67783689
1.0118179 -13.801259 -0.67553097
0.8377316 -13.804398 -0.67333037
0.66383988 -13.807512 -0.67123228
0.49007559 -13.810644 -0.66923857
0.31637916 -13.813755 -0.66734463
0.14270274 -13.816883 -0.66555113
-0.030813826 -13.738207 -0.65993071
-0.20356235 -13.741334 -0.65834928
-0.37800628 -13.800474 -0.65954405
-0.55181003 -13.803587 -0.65815336
-0.72720379 -13.832508 -0.65808898
-0.90190578 -13.835643 -0.65689409
-1.0769684 -13.838804 -0.65579969
-1.2524416 -13.841958 -0.65480208
-1.4283938 -13.845104 -0.65390503
-1.6048825 -13.848282 -0.65310544
-1.7819666 -13.851475 -0.65240705
-1.9597051 -13.854663 -0.6518051
-2.1381662 -13.857871 -0.6513046
-2.3173985 -13.861094 -0.65090668
-2.4974711 -13.864321 -0.65060806
-2.6784418 -13.867569 -0.65041119
-2.8603592 -13.870841 -0.65031415
-3.0433311 -13.874137 -0.65032238
-3.227397 -13.877439 -0.65043592
-3.4126348 -13.880773 -0.65065259
-3.599093 -13.884114 -0.65097868
-3.7868686 -13.887508 -0.65140885
-3.9760313 -13.890898 -0.65194607
-4.1666293 -13.894321 -0.65259886
-4.3587799 -13.897781 -0.65335798
-4.5525513 -13.901263 -0.65423125
-4.7480416 -13.904766 -0.65522337
-4.9452796 -13.908313 -0.65632766
-5.1444011 -13.911904 -0.65755159
-5.3355284 -13.889552 -0.65766692
-5.5382929 -13.893192 -0.65913343
-5.7431955 -13.896885 -0.66072613
-5.9614935 -13.926577 -0.6636833
-6.1714048 -13.930352 -0.66553539
-6.3837767 -13.934169 -0.66752577
-6.5987077 -13.938027 -0.66964692
-6.8163629 -13.941932 -0.67190915
-7.0368195 -13.945906 -0.67431623
-7.2602258 -13.949913 -0.6768707
-7.4866972 -13.953994 -0.67957336
-7.7163815 -13.958113 -0.6824342
-7.9494247 -13.962296 -0.685453
-8.1859541 -13.966562 -0.68863356
-8.4261341 -13.970879 -0.69198483
-8.6701441 -13.97525 -0.69550735
-8.9181452 -13.979716 -0.69920808
-9.1703272 -13.984248 -0.70309311
-9.4268427 -13.988863 -0.70716888
-9.6879187 -13.99355 -0.7114436
-9.9537611 -13.998336 -0.71591812
-10.224591 -14.003201 -0.72060347
-10.441879 -13.92981 -0.72147077
-10.761977 -13.987081 -0.72927487
-11.044155 -13.986538 -0.73434526
-11.362477 -14.023663 -0.7416116
-11.661898 -14.029048 -0.74747252
-11.96787 -14.034534 -0.75359601
-12.280726 -14.04017 -0.75999355
-12.600759 -14.04592 -0.76667482
-12.928417 -14.051797 -0.77365631
-13.264014 -14.057828 -0.78094769
-13.60798 -14.064023 -0.7885617
-13.960654 -14.070353 -0.79651517
-14.322597 -14.076867 -0.80482036
-14.694282 -14.083542 -0.8134985
-15.0762 -14.090407 -0.82257015
-15.468938 -14.097456 -0.83204877
-15.843437 -14.07841 -0.84038526
-16.258806 -14.085894 -0.8507309
-16.718019 -14.119897 -0.86315507
-17.16029 -14.127858 -0.87449461
-17.616798 -14.136066 -0.88636351
-18.088383 -14.144526 -0.89878917
-18.576027 -14.153298 -0.91181195
-19.080566 -14.162363 -0.92546064
-19.603216 -14.171751 -0.9397682
-20.145082 -14.181488 -0.95478547
-12.865301 -8.8170948 -0.60299343
-21.251873 -14.175618 -0.98528087
-21.899179 -14.213026 -1.0045418
-22.531738 -14.224383 -1.0228735
-23.19104 -14.236234 -1.042178
-23.879025 -14.248607 -1.0625302
-24.597939 -14.261517 -1.0840012
-25.350098 -14.27504 -1.106675
-26.138092 -14.2892 -1.1306465
-26.964863 -14.304049 -1.1560296
-27.833595 -14.319664 -1.1829199
-28.747831 -14.336094 -1.2114542
-29.711639 -14.353415 -1.2417763
-30.729357 -14.371716 -1.2740442
-31.746862 -14.364221 -1.305997
-32.947678 -14.411572 -1.3451602
-34.160347 -14.433363 -1.3844436
-35.451191 -14.456566 -1.4265405
-36.610867 -14.395637 -1.4631643
-38.302574 -14.50783 -1.5204217
-39.883247 -14.536225 -1.572934
-41.583862 -14.566794 -1.6297461
-43.217445 -14.532002 -1.6835355
-43.07542 -13.884296 -1.6682214
-42.92897 -13.243985 -1.6532061
-42.778236 -12.611111 -1.6384871
-42.623226 -11.985399 -1.6240575
-42.464077 -11.366875 -1.6099151
-42.300999 -10.755543 -1.5960549
-42.133972 -10.151108 -1.5824707
-41.963158 -9.5537519 -1.5691622
-41.788651 -8.9632998 -1.5561236
-41.610737 -8.3796816 -1.543348
-41.429016 -7.8027501 -1.5308374
-41.243984 -7.2325363 -1.5185832
-41.055767 -6.6689267 -1.5065812
-40.864311 -6.1118817 -1.4948291
-40.882118 -5.5903049 -1.4910842
-40.95409 -5.0768051 -1.4896103
-41.020752 -4.5624924 -1.4882452
-41.082066 -4.047503 -1.4869897
-43.83107 -3.7628591 -1.583099
-43.885105 -3.2125649 -1.5819925
-43.933563 -2.6616268 -1.5810007
-43.976395 -2.1100442 -1.5801233
-44.013466 -1.5578331 -1.5793648
-44.045078 -1.0050397 -1.5787171
-44.070816 -0.45169321 -1.5781903
-44.090889 0.10206436 -1.5777787
-44.105267 0.65635133 -1.5774844
-44.113823 1.2110143 -1.5773093
-44.116806 1.7660471 -1.5772476
-44.113998 2.3213966 -1.5773054
-44.105614 2.877058 -1.5774771
-44.09127 3.4330199 -1.5777709
-44.071194 3.9891021 -1.5781819
-44.045517 4.5454373 -1.5787076
-44.013966 5.1018567 -1.5793536
-43.976566 5.6583214 -1.5801196
-43.933434 6.2148862 -1.5810028
-43.884506 6.7714353 -1.5820041
-43.829765 7.3278909 -1.5831246
-43.769218 7.8843908 -1.5843643
-43.702831 8.4407196 -1.5857235
-43.630623 8.9967804 -1.587202
-43.552639 9.5527077 -1.5887985
-43.468735 10.108408 -1.5905179
-43.379051 10.66374 -1.5923541
-43.283318 11.218712 -1.5943146
-43.181732 11.773416 -1.5963943
-43.074368 12.327615 -1.5985928
-42.96101 12.881276 -1.6009138
-42.841717 13.434496 -1.6033562
-42.71661 13.987095 -1.6059183
-42.585545 14.539059 -1.6086017
-42.448402 15.090406 -1.6114095
-42.305405 15.641076 -1.6143376
-42.156502 16.190931 -1.6173861
-42.001698 16.739994 -1.6205572
-41.84079 17.28821 -1.623852
-41.673889 17.835514 -1.6272699
-41.501053 18.381849 -1.6308087
-41.322136 18.927259 -1.6344724
-41.137054 19.471567 -1.638262
-40.087418 19.594873 -1.6077161
-38.86565 19.606472 -1.5701088
-38.055305 19.801405 -1.5489659
-37.859131 20.307827 -1.5529828
-37.657269 20.81308 -1.5571164
-37.449566 21.31687 -1.5613695
-37.24086 21.822153 -1.5659235
-37.076122 22.356081 -1.5727109
-36.905014 22.890144 -1.5796298
-36.727539 23.424049 -1.5866781
-36.387104 23.855383 -1.5870352
-35.428165 23.868561 -1.5604341
-33.255493 23.017691 -1.4795674
-33.608967 23.892324 -1.5108422
-32.746552 23.904192 -1.4877948
-31.912346 23.915667 -1.4657892
-31.105021 23.926779 -1.444772
-30.322905 23.937553 -1.4246987
-29.463713 23.866308 -1.4007199
-28.827221 23.956905 -1.3870971
-28.112885 23.966755 -1.3695651
-27.418703 23.976328 -1.3527849
-26.743591 23.985653 -1.336731
-26.086771 23.994709 -1.3213748
-25.447121 24.00354 -1.3066727
-24.823748 24.012156 -1.2925918
-24.189035 23.993906 -1.2777095
-23.621794 24.027531 -1.2661511
-23.043026 24.03553 -1.2537975
-22.477552 24.04336 -1.2419735
-21.924931 24.051016 -1.2306502
-21.384403 24.058512 -1.219815
-20.855598 24.065842 -1.2094473
-20.337769 24.073023 -1.1995245
-19.830622 24.080061 -1.1900311
-19.333494 24.08695 -1.1809515
-18.825212 24.066977 -1.1709841
-18.367012 24.099123 -1.1639251
-17.897625 24.105652 -1.1559995
-17.436649 24.112074 -1.1484398
-16.983818 24.118376 -1.1412283
-16.538691 24.124573 -1.1343532
-16.100885 24.130667 -1.1277995
-15.670214 24.136684 -1.1215664
-15.246295 24.142597 -1.1156365
-14.828774 24.148413 -1.1100041
-14.417474 24.154154 -1.1046628
-14.01216 24.159828 -1.0995967
-13.597419 24.138596 -1.093604
-13.217586 24.169695 -1.090234
-12.828609 24.175148 -1.085972
-12.444563 24.180519 -1.0819626
-12.065351 24.185835 -1.0782008
-11.690632 24.191078 -1.0746808
-11.320347 24.196274 -1.0713974
-10.954172 24.201426 -1.0683405
-10.59203 24.206501 -1.0655142
-9.1156244 21.566278 -0.9467752
-9.1438704 22.414536 -0.98160732
-9.5277233 24.22146 -1.0583441
-9.1798105 24.226364 -1.0563759
-8.8350897 24.231211 -1.0546197
-8.0139999 22.868269 -0.99363708
-7.7106228 22.921442 -0.99446285
-7.3938122 22.929146 -0.99350995
-7.0793052 22.936794 -0.99273652
-6.7670155 22.944387 -0.99213988
-6.456882 22.951929 -0.99172419
-6.1487212 22.959421 -0.99148285
-5.5083995 21.653994 -0.93473905
-5.5006928 22.82021 -0.98487592
-5.5299253 24.276669 -1.0476898
-5.2108493 24.281183 -1.0480218
-4.8933554 24.285702 -1.0485373
-4.3349414 23.003527 -0.99365139
-4.0375586 23.010759 -0.99460447
-3.7412398 23.017963 -0.99572539
-3.6373243 24.303545 -1.0523648
-3.1516387 23.032301 -0.99846005
-2.8581512 23.039438 -1.0000787
-2.5653472 23.046556 -1.0018606
-2.1841021 22.149933 -0.96445554
-2.0901554 24.324326 -1.0610343
-1.7828568 24.328712 -1.0633019
-1.4760073 24.333086 -1.0657437
-1.0561215 21.978769 -0.96482295
-0.69589263 19.624487 -0.86357361
-0.55707097 24.34623 -1.0741267
-0.25106189 24.350624 -1.0772723
0.05504524 24.355 -1.080597
0.36122024 24.359396 -1.0840997
0.66762024 24.363781 -1.0877887
0.97440046 24.368193 -1.0916535
1.2815912 24.372595 -1.0957075
1.5892599 24.377031 -1.0999421
1.8975538 24.381456 -1.1043653
2.2066095 24.385908 -1.1089767
2.5136266 24.363306 -1.112548
2.8176868 24.312868 -1.1150417
3.1388443 24.398106 -1.1239116
3.4517665 24.402607 -1.129306
3.7658803 24.407141 -1.1349003
4.0813899 24.411703 -1.140699
4.3982859 24.416285 -1.146708
4.7167544 24.420883 -1.1529211
5.0369511 24.425524 -1.1593546
5.3589158 24.430187 -1.1660074
5.682755 24.434877 -1.1728809
6.008615 24.439596 -1.1799802
6.3366923 24.444353 -1.1873146
6.666976 24.449141 -1.194881
6.9996624 24.453966 -1.2026861
7.3349457 24.458839 -1.2107435
7.6729093 24.463755 -1.2190509
8.0047445 24.441542 -1.2262578
8.356885 24.472452 -1.236379
8.7037239 24.477509 -1.2454793
9.0537624 24.482601 -1.2548518
9.4072084 24.487757 -1.2645032
9.7643213 24.492964 -1.2744516
10.125169 24.498222 -1.2846969
10.489903 24.503557 -1.2952487
8.8058453 19.875391 -1.0591877
11.231938 24.514412 -1.3173034
11.609597 24.519918 -1.3288277
11.991986 24.525524 -1.3406971
12.379248 24.531191 -1.3529142
12.771695 24.536943 -1.3654968
13.125187 24.460283 -1.3737185
13.529037 24.469439 -1.3871658
16.69553 29.319994 -1.6782206
32.354927 37.931808 -2.5700619
32.756714 37.438831 -2.5700619
33.151932 36.942863 -2.5700619
33.540863 36.443851 -2.5700619
33.92334 35.941868 -2.5700619
34.299389 35.436951 -2.5700619
34.669167 34.929226 -2.5700619
35.032509 34.418812 -2.5700619
35.389473 33.905735 -2.5700619
35.740101 33.389908 -2.5700619
36.084339 32.871655 -2.5700619
36.322613 32.26231 -2.5630364
36.388428 31.511284 -2.5445211
36.478199 30.795071 -2.5284369
36.588627 30.108507 -2.5144732
36.717049 29.447805 -2.502399
36.866695 28.813656 -2.4923732
37.033749 28.201305 -2.4840746
37.214062 27.606392 -2.4772048
37.406624 27.026781 -2.4716485
37.62019 26.46747 -2.4679482
37.84264 25.918694 -2.4652727
38.080605 25.384123 -2.4640245
38.332256 24.861454 -2.4640627
38.597672 24.349649 -2.4653659
38.87764 23.848146 -2.4679582
39.177738 23.359339 -2.4721694
39.509644 22.888712 -2.4787056
39.878647 22.43745 -2.4878566
40.286663 22.004725 -2.4997029
40.736557 21.589775 -2.5143867
41.234818 21.194096 -2.5322609
41.788597 20.818638 -2.5537231
42.25536 20.391949 -2.5700619
42.448479 19.831009 -2.5700619
42.635506 19.268904 -2.5700619
42.816273 18.705887 -2.5700619
42.991001 18.14192 -2.5700619
43.159462 17.576826 -2.5700619
43.321838 17.011133 -2.5700619
43.477997 16.44441 -2.5700619
43.628246 15.877016 -2.5700619
43.772064 15.308803 -2.5700619
43.910053 14.740035 -2.5700619
44.041931 14.170534 -2.5700619
44.1675 13.600468 -2.5700619
44.287159 13.02979 -2.5700619
44.400776 12.458751 -2.5700619
44.508293 11.887074 -2.5700619
44.609741 11.315134 -2.5700619
44.705227 10.742851 -2.5700619
44.79472 10.170268 -2.5700619
44.878132 9.5973806 -2.5700619
44.95562 9.0242519 -2.5700619
45.02697 8.450758 -2.5700619
45.09248 7.877357 -2.5700619
45.151905 7.3038468 -2.5700619
45.205383 6.7302113 -2.5700619
45.253052 6.1566501 -2.5700619
45.294735 5.5830994 -2.5700619
45.330379 5.0095582 -2.5700619
45.360157 4.4362259 -2.5700619
45.384068 3.8629463 -2.5700619
45.402012 3.2899323 -2.5700619
45.414085 2.7173803 -2.5700619
45.420174 2.1446249 -2.5700619
45.420483 1.5724515 -2.5700619
45.414967 1.0006446 -2.5700619
45.403519 0.42914283 -2.5700619
45.386333 -0.14179535 -2.5700619
45.363235 -0.71227133 -2.5700619
45.334229 -1.2823443 -2.5700619
45.299515 -1.8517354 -2.5700619
45.258881 -2.4206254 -2.5700619
45.212551 -2.988873 -2.5700619
45.160351 -3.5563838 -2.5700619
42.427864 -3.8787053 -2.4176619
42.367882 -4.4111609 -2.4176619
42.302437 -4.9429483 -2.4176619
42.231594 -5.4738302 -2.4176619
42.155342 -6.0039663 -2.4176619
42.073643 -6.5333152 -2.4176619
41.986649 -7.0616612 -2.4176619
41.89407 -7.5890679 -2.4176619
41.796192 -8.1155281 -2.4176619
41.693016 -8.6410437 -2.4176619
41.584366 -9.1654606 -2.4176619
16.704756 -3.9027429 -0.97386336
16.742937 -4.1343827 -0.97889006
41.226318 -10.732108 -2.4176619
41.096153 -11.251871 -2.4176619
40.960716 -11.770452 -2.4176619
40.819847 -12.287898 -2.4176619
40.67384 -12.803944 -2.4176619
25.011909 -8.220727 -1.4922706
38.319168 -13.130754 -2.2950933
36.875927 -13.156706 -2.2175581
35.525692 -13.180983 -2.1453011
34.259655 -13.203739 -2.0778067
33.069687 -13.225115 -2.0146315
31.948601 -13.245263 -1.9553702
30.707581 -13.185786 -1.8886203
29.889771 -13.282258 -1.8472533
28.941601 -13.299316 -1.7978085
28.041849 -13.31547 -1.7511147
27.186384 -13.330861 -1.7069473
26.371977 -13.345488 -1.6651107
25.47925 -13.298796 -1.618113
24.853666 -13.372776 -1.5877329
24.144682 -13.385522 -1.5519019
23.465837 -13.397712 -1.5177934
22.815041 -13.409415 -1.4852892
22.190517 -13.420635 -1.4542831
21.590384 -13.431419 -1.4246768
20.888863 -13.362242 -1.3879904
20.419312 -13.426702 -1.3667667
19.921709 -13.461407 -1.3434047
19.40489 -13.470693 -1.3185815
18.905796 -13.479663 -1.2947761
18.423302 -13.48833 -1.2719308
17.956581 -13.496728 -1.2499939
17.504677 -13.504846 -1.2289181
17.066668 -13.512722 -1.2086459
16.641941 -13.520353 -1.1891479
16.229643 -13.527762 -1.1703755
15.82923 -13.534958 -1.1522946
15.411236 -13.516697 -1.1327475
15.061403 -13.548745 -1.118072
14.692847 -13.555383 -1.1018614
14.333904 -13.561825 -1.0862197
13.983992 -13.568107 -1.0711113
13.6428 -13.574254 -1.0565236
13.309776 -13.580223 -1.0424196
12.984621 -13.586079 -1.0287901
12.666923 -13.591792 -1.015607
12.356275 -13.597371 -1.0028524
12.052444 -13.602827 -0.99051023
11.755079 -13.608161 -0.97856152
11.463798 -13.613409 -0.96698588
11.178495 -13.618528 -0.95577633
10.898769 -13.623554 -0.94491589
10.624463 -13.628485 -0.93439084
10.335986 -13.607914 -0.92247432
10.03128 -13.557396 -0.90888333
6.1005864 -8.4655857 -0.56138486
9.5763493 -13.647349 -0.89539552
9.3255253 -13.651845 -0.88636506
9.0788507 -13.656281 -0.87760252
8.8360739 -13.660642 -0.86909878
8.5971041 -13.664948 -0.86084563
8.3617363 -13.669168 -0.85283506
8.1297579 -13.673344 -0.84505463
7.9011474 -13.677456 -0.83750671
7.6756997 -13.681493 -0.83017391
7.4532504 -13.685495 -0.8230505
7.2337317 -13.689445 -0.81613708
7.0169659 -13.693349 -0.80942225
6.8028836 -13.697187 -0.80290282
6.591342 -13.700984 -0.79657257
6.3821917 -13.704741 -0.79042113
6.1754045 -13.708461 -0.78445095
5.9708433 -13.712145 -0.77865535
5.7683625 -13.715779 -0.77302396
5.5679412 -13.719383 -0.76756257
5.3694544 -13.722959 -0.76225859
5.163095 -13.70088 -0.75569671
4.9685717 -13.704378 -0.75070983
4.7628455 -13.670991 -0.74387085
4.5805292 -13.69965 -0.74056882
4.4028621 -13.74031 -0.73801118
4.2141485 -13.743707 -0.73359251
4.0268312 -13.74707 -0.72931242
3.8407934 -13.750422 -0.72516388
3.6559367 -13.753745 -0.72114867
3.4722512 -13.757038 -0.71725827
3.2896209 -13.760326 -0.71349484
3.1080158 -13.763591 -0.70985657
2.9273674 -13.76683 -0.70634061
2.7475395 -13.77007 -0.70294249
2.5685806 -13.773289 -0.6996634
2.390383 -13.776489 -0.69649994
2.2128494 -13.779673 -0.69344997
2.0359702 -13.78286 -0.69051605
1.8596473 -13.786016 -0.68768829
1.6838714 -13.789176 -0.68497252
1.5085543 -13.792325 -0.68236756
1.3336086 -13.795485 -0.67986572
1.1590434 -13.798616 -0.67747128
0.98476118 -13.801741 -0.67518276
0.81069428 -13.804879 -0.67299801
0.63683188 -13.807993 -0.67091703
0.46308714 -13.811125 -0.66893613
0.28936189 -13.814255 -0.66705871
0.1157045 -13.817364 -0.66528165
-0.057915267 -13.794703 -0.66236818
-0.23137692 -13.797827 -0.66079509
-0.4050045 -13.800954 -0.65932161
-0.57885671 -13.804089 -0.65794343
-0.75434846 -13.832993 -0.65789825
-0.92910856 -13.836147 -0.65671873
-1.1042109 -13.839292 -0.65563703
-1.2797427 -13.842446 -0.6546585
-1.455792 -13.845615 -0.65377349
-1.6323591 -13.848774 -0.65298963
-1.8095309 -13.851969 -0.6523065
-1.9874259 -13.855161 -0.65172088
-2.1659846 -13.858372 -0.65123749
-2.3453536 -13.861599 -0.65085202
-2.5255432 -13.864827 -0.65056884
-2.7066503 -13.868079 -0.65038818
-2.8887537 -13.871355 -0.65030885
-3.0718722 -13.874654 -0.65033585
-3.2561038 -13.877962 -0.65046251
-3.4415369 -13.8813 -0.6506955
-3.6281903 -13.884647 -0.65103608
-3.8161614 -13.888026 -0.65148389
-4.005549 -13.89142 -0.65204191
-4.1963906 -13.894869 -0.65270793
-4.3888345 -13.898317 -0.65348649
-4.58285 -13.901804 -0.65437835
-4.7785749 -13.905313 -0.65538555
-4.9761343 -13.908867 -0.65651119
-5.175549 -13.912465 -0.65775377
-5.3669009 -13.89012 -0.65789211
-5.5700064 -13.893768 -0.65937287
-5.7752514 -13.89747 -0.66098523
-5.993969 -13.927172 -0.66396362
-6.2042418 -13.930936 -0.66583741
-6.416995 -13.93476 -0.66784328
-6.6323752 -13.938631 -0.66999131
-6.85044 -13.942546 -0.67227387
-7.0713263 -13.94653 -0.67470425
-7.2952499 -13.95055 -0.67728192
-7.5222001 -13.954622 -0.68000823
-7.7524118 -13.958755 -0.68289518
-7.9859624 -13.96297 -0.68593568
-8.2230377 -13.96723 -0.68914396
-8.4638348 -13.971541 -0.69252026
-8.7084389 -13.975945 -0.69607055
-8.9570465 -13.980409 -0.69979918
-9.2099009 -13.984956 -0.70371443
-9.4671106 -13.989589 -0.70781982
-9.728899 -13.994293 -0.71212339
-9.9955225 -13.999078 -0.71663374
-10.267116 -14.003963 -0.72135329
-10.48166 -13.926049 -0.72200042
-10.80619 -13.987882 -0.7300908
-11.04869 -13.936223 -0.73249894
-11.408623 -14.024492 -0.74250776
-11.70903 -14.029881 -0.74840742
-12.016036 -14.035414 -0.75457305
-12.330006 -14.041055 -0.7610144
-12.651202 -14.046814 -0.76773983
-12.98007 -14.05274 -0.77476895
-13.316908 -14.058782 -0.78210765
-3.1725609 -13.876458 -0.88188553
-3.3574276 -13.879783 -0.88281035
-3.543524 -13.883135 -0.88388121
-3.73089 -13.886498 -0.88510114
-3.9196334 -13.889877 -0.88647187
-4.1098013 -13.893311 -0.88799953
-4.3014836 -13.89674 -0.88967967
-4.4947667 -13.900229 -0.89151871
-4.6897101 -13.903719 -0.89352006
-4.8864202 -13.907252 -0.89568299
-5.0849762 -13.91083 -0.8980124
-5.2541862 -13.832088 -0.89515072
-5.477735 -13.89211 -0.90149975
-5.6589236 -13.839371 -0.90066695
-5.8645682 -13.843062 -0.90367979
-6.1086597 -13.929217 -0.91227478
-6.3202801 -13.933034 -0.91567487
-6.5344396 -13.936873 -0.91926938
-6.7512736 -13.94078 -0.92306244
-6.9708624 -13.944713 -0.92705715
-7.1933599 -13.948715 -0.9312579
-7.4188943 -13.952774 -0.9356755
-7.6475925 -13.95687 -0.94030607
-7.8796015 -13.961047 -0.94516891
-8.1150656 -13.965288 -0.95025754
-8.3541327 -13.969578 -0.95558619
-8.5969696 -13.973939 -0.96116209
-8.8437414 -13.978376 -0.96699077
-9.0946341 -13.982894 -0.97308135
-9.349823 -13.987479 -0.97944367
-9.6095028 -13.992132 -0.98608351
-9.8738794 -13.996882 -0.99301344
-10.143167 -14.001729 -1.0002402
-10.417611 -14.006663 -1.0077798
-10.634109 -13.928781 -1.0096307
-10.96237 -13.990685 -1.0219252
-11.274189 -14.022082 -1.0323788
-11.571686 -14.02742 -1.0412797
-11.875647 -14.032879 -1.0505536
-12.186384 -14.038462 -1.0602204
-12.50422 -14.044178 -1.0702935
-12.829505 -14.050016 -1.0807909
-13.162642 -14.056008 -1.0917282
-13.50403 -14.06214 -1.1031314
-13.854018 -14.068443 -1.1150147
-14.213119 -14.07489 -1.1274089
-14.581788 -14.08151 -1.140328
-14.960532 -14.088316 -1.1538044
-15.349902 -14.095324 -1.1678665
-15.666607 -14.027396 -1.1762235
-16.0868 -14.043496 -1.1922178
-16.587812 -14.117572 -1.213858
-17.025934 -14.125432 -1.2305714
-17.478039 -14.133573 -1.2480419
-17.944944 -14.141956 -1.2663078
-18.427591 -14.150626 -1.2854208
-18.926886 -14.159603 -1.3054266
-19.443903 -14.168891 -1.3263714
-19.979794 -14.178524 -1.3483299
-12.775833 -8.8270512 -0.85321134
-21.073311 -14.172097 -1.3928849
-21.713408 -14.209682 -1.4208969
-22.338142 -14.220906 -1.4475688
-22.989094 -14.232614 -1.4756314
-23.668129 -14.244807 -1.5051695
-24.377384 -14.257561 -1.5363089
-25.119144 -14.270889 -1.569154
-25.895901 -14.284855 -1.6038421
-26.552446 -14.214855 -1.6308126
-27.566044 -14.314858 -1.6793432
-28.466015 -14.331038 -1.7205023
-29.41424 -14.348079 -1.7641879
-30.415026 -14.366064 -1.8106298
-31.340715 -14.324512 -1.8522128
-32.364822 -14.303798 -1.8993403
-32.354797 -13.816143 -1.8858258
-32.339722 -13.331844 -1.8725091
-32.319668 -12.850961 -1.8593909
-32.294746 -12.373533 -1.8464684
-32.265118 -11.89949 -1.8337389
-32.230694 -11.428886 -1.8212042
-32.191639 -10.961723 -1.808861
-32.148083 -10.498126 -1.7967093
-32.100079 -10.037916 -1.7847455
-32.047718 -9.581274 -1.7729706
-31.99103 -9.1281023 -1.7613815
-31.930088 -8.678421 -1.7499783
-31.864996 -8.2322731 -1.7387595
-31.795872 -7.7896619 -1.7277224
-31.722775 -7.3505478 -1.7168655
-31.645721 -6.9149914 -1.7061889
-31.564804 -6.482955 -1.6956906
-31.480082 -6.0543823 -1.6853689
-31.529797 -5.6541643 -1.6825888
-31.598938 -5.2577586 -1.6811731
-31.663864 -4.8605285 -1.6798437
-31.724531 -4.4626865 -1.678601
-31.780846 -4.0641332 -1.677448
-33.091553 -3.8099053 -1.7426629
-33.967518 -3.4789531 -1.7850723
-34.01371 -3.0524108 -1.7841265
-34.055374 -2.6253486 -1.7832736
-34.0924 -2.1977432 -1.7825152
-34.124859 -1.7696362 -1.7818506
-34.15271 -1.3411828 -1.7812802
-34.175884 -0.91226375 -1.7808056
-34.194447 -0.48299846 -1.7804255
-34.20837 -0.053424835 -1.7801404
-34.217651 0.37643752 -1.7799506
-34.222221 0.80657071 -1.7798566
-34.22221 1.2368934 -1.7798567
-34.217499 1.6673502 -1.7799535
-34.208199 2.0979574 -1.7801437
-34.194183 2.5286596 -1.7804309
-34.175476 2.9593592 -1.7808136
-34.152103 3.3900933 -1.7812926
-34.12402 3.8208251 -1.7818674
-34.091324 4.2514153 -1.7825369
-34.053867 4.6819258 -1.7833036
-34.011768 5.1122556 -1.7841659
-33.964905 5.5424285 -1.7851251
-33.913311 5.9722667 -1.7861819
-33.857098 6.401885 -1.7873328
-33.796158 6.8312473 -1.7885803
-33.730465 7.2601395 -1.7899257
-33.660057 7.6886377 -1.7913674
-33.584965 8.1167221 -1.792905
-33.50515 8.5443354 -1.7945391
-33.420574 8.9713612 -1.7962713
-33.331219 9.3978395 -1.7981006
-33.237286 9.8237066 -1.8000244
-33.138462 10.248872 -1.8020477
-33.034962 10.673407 -1.804167
-32.926731 11.097139 -1.8063831
-32.813747 11.52007 -1.8086969
-32.696045 11.942196 -1.8111066
-32.573616 12.363442 -1.8136139
-32.446419 12.783767 -1.8162183
-32.314476 13.203074 -1.8189199
-32.177792 13.621464 -1.8217192
-32.036331 14.038697 -1.8246156
-31.890095 14.454856 -1.8276098
-31.739231 14.869914 -1.8306991
-31.583523 15.283764 -1.8338873
-31.423105 15.696321 -1.8371716
-31.257917 16.107626 -1.8405541
-31.088018 16.51762 -1.8440334
-30.913349 16.926186 -1.8476105
-30.734032 17.333342 -1.851282
-30.549835 17.739012 -1.8550537
-30.36105 18.143156 -1.8589196
-30.167389 18.545677 -1.8628845
-29.96909 18.946632 -1.8669455
-29.76609 19.345943 -1.871102
-29.326679 19.588766 -1.8606631
-28.556459 19.597551 -1.8291438
-27.81319 19.605877 -1.7990621
-27.130873 19.639757 -1.7726626
-26.91819 20.005955 -1.7770175
-26.701122 20.370304 -1.7814623
-26.479666 20.732807 -1.7859969
-26.253801 21.093306 -1.7906219
-26.0235 21.451803 -1.7953374
-25.791149 21.810215 -1.8003001
-25.578588 22.187525 -1.8070654
-25.361097 22.56341 -1.8139224
-25.138639 22.937756 -1.8208714
-24.911108 23.310371 -1.8279133
-24.67864 23.681328 -1.8350456
-24.334465 23.945553 -1.8342253
-23.817429 24.033207 -1.8204428
-23.233982 24.041162 -1.8013728
-22.66415 24.048962 -1.7830775
-22.107296 24.056583 -1.7655261
-21.562798 24.064043 -1.7486761
-21.030119 24.071327 -1.7325099
-20.508694 24.078478 -1.7170016
-19.99802 24.085485 -1.7021142
-19.497601 24.092358 -1.68784
-18.985897 24.07233 -1.6722915
-17.827274 23.196974 -1.5983877
-18.052528 24.11097 -1.6483326
-17.588816 24.117344 -1.6362576
-17.133266 24.123613 -1.6246904
-16.685579 24.129791 -1.6136132
-16.245333 24.135868 -1.6030117
-15.812284 24.141846 -1.5928657
-15.38607 24.147736 -1.5831625
-14.966478 24.153522 -1.5738876
-14.553126 24.159258 -1.5650332
-14.145809 24.164883 -1.5565798
-13.70429 24.100185 -1.5439967
-13.303346 24.094717 -1.5356745
-12.956785 24.18014 -1.5334725
-12.571098 24.185493 -1.5265357
-12.190255 24.190788 -1.5199516
-11.814031 24.19603 -1.5137149
-11.442249 24.201202 -1.5078158
-11.074707 24.20631 -1.5022469
-10.711207 24.211378 -1.4969987
-10.351564 24.21641 -1.4920721
-9.1372261 22.141277 -1.3597101
-9.1083002 22.882393 -1.4008609
-9.2941895 24.23118 -1.479111
-8.9483652 24.236017 -1.4753835
-8.1167126 22.863718 -1.3883209
-7.8134441 22.91894 -1.3884176
-7.4958525 22.926664 -1.3858901
-7.1806622 22.934328 -1.383616
-6.8677082 22.941938 -1.3816012
-6.556901 22.949497 -1.3798269
-6.2481155 22.957005 -1.3783078
-5.5945854 21.624607 -1.2966958
-5.5475831 22.610983 -1.3543676
-5.6348948 24.281345 -1.4531082
-5.3152227 24.285875 -1.4523175
-4.9972205 24.290365 -1.4517752
-4.4219213 22.95175 -1.3712389
-4.1336923 23.008419 -1.3743242
-3.8370514 23.015635 -1.3746884
-3.5415041 23.022821 -1.3752789
-3.2468841 23.029985 -1.3760998
-2.9531426 23.037128 -1.3771458
-2.6601629 23.044252 -1.3784164
-2.2777939 22.174931 -1.3274515
-2.1904535 24.328943 -1.4577655
-1.8828815 24.333332 -1.4596341
-1.5758172 24.337711 -1.4617447
-1.1504322 22.065371 -1.3271542
-0.96272391 24.346466 -1.4666727
-0.65652889 24.350843 -1.4695004
-0.35039249 24.355221 -1.4725622
-0.044266358 24.359619 -1.4758691
0.26194775 24.364017 -1.4794161
0.56834775 24.368401 -1.4832046
0.87504989 24.37281 -1.4872382
1.1821425 24.377232 -1.4915177
1.4897239 24.381643 -1.4960455
1.7979002 24.386087 -1.500825
2.1067603 24.390532 -1.5058553
2.4082744 24.313034 -1.506061
2.723897 24.372404 -1.5149988
3.0382912 24.40275 -1.522406
3.3508914 24.407265 -1.5284761
3.6647017 24.411808 -1.534812
3.9798107 24.416365 -1.541418
4.2963457 24.420954 -1.5482976
4.6143842 24.425564 -1.5554556
4.934082 24.430212 -1.5628973
5.2555194 24.434885 -1.570628
5.5788403 24.439579 -1.5786465
5.9041338 24.444304 -1.5869713
6.231576 24.449083 -1.5955963
6.5612144 24.453875 -1.6045287
6.8932457 24.458727 -1.6137729
7.227747 24.463617 -1.6233433
7.5648851 24.468533 -1.63324
7.8960505 24.446323 -1.6416458
8.2472429 24.47727 -1.6539656
8.5931301 24.482325 -1.6648962
8.942234 24.487452 -1.6761767
9.2946844 24.492601 -1.687832
9.6506929 24.497841 -1.6998639
10.010402 24.503107 -1.7122781
10.374002 24.508453 -1.7250894
8.724227 19.909842 -1.4118057
11.113551 24.519344 -1.751954
11.48987 24.524881 -1.7660239
11.870819 24.530512 -1.7805401
12.256638 24.536201 -1.7955055
12.647502 24.541971 -1.8109442
13.043689 24.547817 -1.8268659
13.431146 24.527756 -1.8413435
16.37569 29.032507 -2.1990035
18.423309 31.723957 -2.4248247
18.777401 31.417355 -2.4238157
19.126961 31.107327 -2.4227946
19.471359 30.79291 -2.4216921
19.811039 30.475019 -2.4205713
20.148643 30.157663 -2.4197359
20.485176 29.842236 -2.4193079
22.11845 31.368835 -2.5700619
22.480433 31.045956 -2.5711815
22.831867 30.710869 -2.5715799
23.175734 30.368343 -2.5716355
23.51499 30.022484 -2.5716925
23.849672 29.673466 -2.5717514
24.179665 29.321289 -2.5718036
24.521738 28.985754 -2.5736084
24.870798 28.659592 -2.5765774
25.202499 28.314623 -2.5781698
25.550634 27.989044 -2.5818677
25.889814 27.654066 -2.5850484
26.198183 27.287432 -2.5855837
26.509769 26.925934 -2.5868807
26.804699 26.54932 -2.5870121
27.085581 26.161133 -2.5862541
27.357422 25.766628 -2.5851014
27.613647 25.360334 -2.5829711
27.877188 24.9634 -2.5819998
28.102379 24.53537 -2.5779719
28.341095 24.122515 -2.5756848
28.583569 23.715593 -2.574218
28.787399 23.279737 -2.5697517
29.035944 22.88283 -2.5697513
29.250471 22.461435 -2.5671933
29.461229 22.039892 -2.5647607
29.667669 21.617811 -2.5624194
29.869497 21.195017 -2.5601275
30.054976 20.763208 -2.5568781
30.222364 20.3223 -2.5525835
30.443424 19.919586 -2.5532441
30.65974 19.514921 -2.5538993
30.871176 19.108242 -2.5545483
31.077824 18.699688 -2.5551915
31.279724 18.289377 -2.5558288
31.476715 17.877171 -2.5564599
31.66888 17.463242 -2.557085
31.856218 17.047634 -2.5577042
32.038765 16.630405 -2.5583169
32.216419 16.211554 -2.5589235
32.389114 15.791155 -2.5595238
32.557022 15.369233 -2.5601177
32.720032 14.945921 -2.5607052
32.878193 14.521164 -2.5612864
33.031475 14.095137 -2.5618613
33.179859 13.667738 -2.5624294
33.323292 13.239086 -2.5629909
33.46188 12.809223 -2.5635462
33.595581 12.378244 -2.5640945
33.724361 11.946111 -2.5646365
33.848232 11.512959 -2.5651715
33.967182 11.07875 -2.5656998
34.081192 10.643541 -2.566221
34.190338 10.207491 -2.5667355
34.29459 9.7705212 -2.5672433
34.393883 9.3327465 -2.567744
34.488289 8.8942099 -2.5682378
34.577782 8.4548683 -2.5687246
34.66227 8.0148773 -2.5692043
34.741894 7.5741839 -2.5696771
34.815548 7.1327767 -2.5700619
34.879112 6.689816 -2.5700619
34.937866 6.2465239 -2.5700619
34.99168 5.8028569 -2.5700619
35.040684 5.3590345 -2.5700619
35.084957 4.9149995 -2.5700619
35.12434 4.4708252 -2.5700619
35.158863 4.0264745 -2.5700619
35.188625 3.5820863 -2.5700619
35.213596 3.1376595 -2.5700619
35.233662 2.6931722 -2.5700619
35.248959 2.2487645 -2.5700619
35.25946 1.8044157 -2.5700619
35.26527 1.3602068 -2.5700619
35.266117 0.91619009 -2.5700619
35.262398 0.47235516 -2.5700619
35.253712 0.028751297 -2.5700619
35.240276 -0.41459692 -2.5700619
35.222141 -0.85757095 -2.5700619
35.199207 -1.3002319 -2.5700619
35.171448 -1.7424634 -2.5700619
35.139023 -2.1842413 -2.5700619
35.101913 -2.6255865 -2.5700619
35.060009 -3.0663838 -2.5700619
35.013382 -3.5066316 -2.5700619
33.797626 -3.8148711 -2.4844716
32.83604 -4.1252918 -2.4176619
32.77887 -4.5376239 -2.4176619
32.717209 -4.9492831 -2.4176619
32.651176 -5.3602481 -2.4176619
32.580799 -5.7704597 -2.4176619
32.505852 -6.1798434 -2.4176619
32.42667 -6.5884714 -2.4176619
32.343021 -6.9962506 -2.4176619
16.778683 -3.8510084 -1.2576442
16.680511 -4.0499969 -1.2538757
32.065701 -8.2140551 -2.4176619
31.964525 -8.618001 -2.4176619
31.859076 -9.0209379 -2.4176619
31.749184 -9.4227705 -2.4176619
31.634941 -9.8234978 -2.4176619
25.034933 -8.1206465 -1.9204581
31.393551 -10.621517 -2.4176619
31.26634 -11.018711 -2.4176619
31.134783 -11.414603 -2.4176619
30.999037 -11.809252 -2.4176619
30.858835 -12.202541 -2.4176619
30.714474 -12.594466 -2.4176619
30.565752 -12.984956 -2.4176619
30.191795 -13.276847 -2.4000871
29.227892 -13.294172 -2.3355401
28.31352 -13.310603 -2.2746134
27.444731 -13.3262 -2.2170269
26.61788 -13.341071 -2.1625171
25.676992 -13.27619 -2.0984228
25.077694 -13.368754 -2.0618165
24.358786 -13.381664 -2.0152266
23.670784 -13.394038 -1.9709059
23.01153 -13.405889 -1.9287024
22.379015 -13.417243 -1.8884665
21.77153 -13.428167 -1.8500782
21.18738 -13.438661 -1.813413
20.586653 -13.423689 -1.7750449
20.083311 -13.458494 -1.744827
19.560768 -13.467897 -1.7127156
19.056253 -13.476963 -1.681945
18.568724 -13.485711 -1.6524389
18.097219 -13.494188 -1.6241298
17.640795 -13.502395 -1.5969381
17.198582 -13.510355 -1.5708067
16.769835 -13.518045 -1.5456904
16.353771 -13.525524 -1.5215269
15.949756 -13.53279 -1.4982681
15.465042 -13.459726 -1.4671386
15.146996 -13.521441 -1.451574
14.80372 -13.553391 -1.4334798
14.441853 -13.559884 -1.4134187
14.089198 -13.566233 -1.3940531
13.745358 -13.572405 -1.3753685
13.409849 -13.578435 -1.3573246
13.082314 -13.584327 -1.3398951
12.762314 -13.590077 -1.3230468
12.449556 -13.59569 -1.3067682
12.143638 -13.601194 -1.2910249
11.844296 -13.606559 -1.2757962
11.551217 -13.611831 -1.2610623
11.264089 -13.616994 -1.2468039
10.982673 -13.62206 -1.2330018
10.706731 -13.627011 -1.2196363
10.408451 -13.595914 -1.2034124
10.151233 -13.611234 -1.1919315
6.1552787 -8.4735746 -0.73422956
9.6527405 -13.64598 -1.1702462
9.4006367 -13.650508 -1.1588418
9.152688 -13.654955 -1.1477869
8.9087486 -13.659343 -1.1370736
8.6686068 -13.663658 -1.1266876
8.4321356 -13.667904 -1.1166165
8.199151 -13.672086 -1.1068521
7.9695354 -13.676223 -1.0973855
7.743103 -13.680285 -1.088205
7.5197654 -13.684307 -1.0793064
7.2993469 -13.68826 -1.0706732
7.0817413 -13.692184 -1.062304
6.8668399 -13.696043 -1.0541931
6.6545162 -13.699857 -1.0463281
6.444644 -13.703633 -1.0387045
6.2371335 -13.707351 -1.0313132
6.0318804 -13.711052 -1.0241525
5.8287835 -13.714701 -1.0172122
5.6277275 -13.718301 -1.0104885
5.4286351 -13.721891 -1.0039777
5.200459 -13.644213 -0.9917593
5.0061798 -13.647706 -0.98565918
4.83321 -13.70681 -0.9838205
4.6226106 -13.654591 -0.97414547
4.4595237 -13.739304 -0.97441864
4.2704 -13.74269 -0.96907711
4.082653 -13.746064 -0.9639172
3.8962054 -13.749425 -0.95893127
3.7109973 -13.752757 -0.95412076
3.5269506 -13.756061 -0.94948089
3.3440082 -13.759356 -0.94500822
3.1620901 -13.762609 -0.94069976
2.9811394 -13.765875 -0.9365527
2.8010864 -13.7691 -0.93256652
2.6218638 -13.772326 -0.92873871
2.4434223 -13.775532 -0.92506254
2.265703 -13.778721 -0.9215399
2.088619 -13.781913 -0.91816831
1.9121403 -13.785091 -0.91494441
1.7361882 -13.788236 -0.91187012
1.5607247 -13.791389 -0.90893763
1.3856618 -13.794552 -0.90615016
1.2109892 -13.797687 -0.90350765
1.0366094 -13.800813 -0.90100431
0.8624742 -13.803952 -0.89864039
0.68854338 -13.807068 -0.8964169
0.5147596 -13.810201 -0.89433223
0.34105343 -13.813311 -0.89238524
0.167377 -13.816439 -0.89057404
-0.0062860488 -13.737767 -0.8836357
-0.17902477 -13.740893 -0.8821075
-0.3533515 -13.80003 -0.88430095
-0.52712607 -13.803143 -0.88303524
-0.70245141 -13.832063 -0.8835516
-0.87709486 -13.835195 -0.8825528
-1.052099 -13.838357 -0.88168895
-1.2275137 -13.841509 -0.88095975
-1.4033968 -13.844672 -0.88036603
-1.5798177 -13.847829 -0.87990737
-1.7568138 -13.851019 -0.87958676
-1.9344549 -13.854205 -0.87940431
-2.1128087 -13.85741 -0.87935668
-2.291924 -13.860632 -0.87944794
-2.4718788 -13.863874 -0.87967938
-2.6527126 -13.86712 -0.88004971
-2.8345129 -13.870388 -0.88056302
-3.0173192 -13.873661 -0.88121974
-3.2012188 -13.87698 -0.88201946
-3.3862906 -13.880308 -0.88296825
-3.5725634 -13.883646 -0.8840605
-3.760144 -13.887015 -0.88530469
-3.9491014 -13.890418 -0.88670146
-4.1395044 -13.893838 -0.88825256
-4.3314304 -13.897292 -0.88995481
-4.5249672 -13.900767 -0.89181989
-4.7201843 -13.904264 -0.8938458
-4.9171581 -13.907804 -0.89603394
-5.1160069 -13.911388 -0.89839035
-5.3069091 -13.889051 -0.89923245
-5.5093517 -13.892684 -0.90193021
-5.7139511 -13.896369 -0.90480053
-5.931839 -13.926051 -0.90955108
-6.1413989 -13.929818 -0.91279191
-6.3534107 -13.933625 -0.91622233
-6.5679698 -13.937475 -0.91984802
-6.7852244 -13.94139 -0.9236691
-7.0052519 -13.945334 -0.92769623
-7.2282181 -13.949349 -0.9319331
-7.4542313 -13.9534 -0.93637878
-7.6834373 -13.957526 -0.94104856
-7.9159727 -13.961698 -0.9459433
-8.1519842 -13.965951 -0.9510693
-8.3916378 -13.970255 -0.95643586
-8.6350794 -13.974631 -0.96205151
-8.8824568 -13.979063 -0.96791869
-9.1340322 -13.983599 -0.97405332
-9.3898849 -13.988199 -0.98045802
-9.6502876 -13.992869 -0.98714066
-9.9154167 -13.997638 -0.99411845
-10.185486 -14.002485 -1.001393
-10.46075 -14.007442 -1.008979
-10.721378 -13.986347 -1.0149961
-11.007187 -13.991482 -1.0232273
-11.320031 -14.022903 -1.0337379
-11.618496 -14.028266 -1.042696
-11.923521 -14.03375 -1.052031
-12.235312 -14.039338 -1.0617584
-12.554291 -14.045083 -1.0718951
-12.880778 -14.050951 -1.0824612
-13.215164 -14.056952 -1.0934714
-13.55787 -14.063117 -1.104946
-13.909245 -14.069434 -1.1169089
-14.269791 -14.075915 -1.1293805
-14.639993 -14.082555 -1.1423836
-15.020339 -14.0894 -1.1559504
-15.411455 -14.096429 -1.1701089
-15.784324 -14.077363 -1.182685
-16.132092 -14.027599 -1.1931683
-16.655029 -14.118776 -1.2164099
-17.095289 -14.126689 -1.2332362
-17.549629 -14.134845 -1.2508268
-18.018938 -14.143287 -1.2692219
-18.504093 -14.151998 -1.28847
-19.006037 -14.161019 -1.3086169
-19.525923 -14.170359 -1.3297187
-20.064869 -14.180045 -1.351838
-12.800406 -8.8071547 -0.85342145
-21.07942 -14.116508 -1.3909293
-21.808882 -14.211396 -1.4249562
-22.43758 -14.222698 -1.4518416
-23.092793 -14.23447 -1.4801235
-23.776396 -14.246757 -1.5099032
-24.490513 -14.259588 -1.5412974
-25.237497 -14.273005 -1.5744188
-26.019966 -14.28707 -1.6094079
-26.719103 -14.23702 -1.6389451
-27.702961 -14.317327 -1.6855847
-28.610155 -14.333624 -1.7271229
-29.566339 -14.350801 -1.771224
-30.575659 -14.368955 -1.8181138
-31.523371 -14.333605 -1.8609698
-32.363567 -14.227767 -1.8972263
-32.352757 -13.740642 -1.8837427
-32.336964 -13.256931 -1.8704579
-32.316174 -12.776557 -1.8573685
-32.290474 -12.2996 -1.8444761
-32.260071 -11.826085 -1.8317776
-32.224964 -11.356088 -1.8192728
-32.185192 -10.889457 -1.8069589
-32.140923 -10.42631 -1.7948359
-32.092167 -9.9666872 -1.7829031
-32.039131 -9.5105562 -1.7711565
-31.981764 -9.0579147 -1.7595965
-31.920244 -8.6088257 -1.7482214
-31.854572 -8.1632299 -1.7370303
-31.784702 -7.7211666 -1.7260236
-31.710995 -7.2826047 -1.7151945
-31.633413 -6.8476214 -1.7045453
-31.551897 -6.416079 -1.6940746
-31.466679 -5.9881577 -1.6837796
-31.540836 -5.5925975 -1.6823627
-31.609377 -5.196002 -1.6809595
-31.67362 -4.7987747 -1.6796435
-31.73354 -4.4007583 -1.6784166
-31.789194 -4.0021105 -1.6772771
-33.609543 -3.8030028 -1.7693486
-33.975002 -3.412631 -1.7849191
-34.020519 -2.9860332 -1.783987
-34.061417 -2.5588546 -1.7831495
-34.097809 -2.1311753 -1.7824048
-34.129475 -1.7030882 -1.781756
-34.15657 -1.2745186 -1.7812011
-34.179028 -0.84554327 -1.7807412
-34.196949 -0.41622317 -1.7803744
-34.210091 0.013369446 -1.7801052
-34.218643 0.44330817 -1.7799301
-34.222519 0.87347782 -1.7798507
-34.221798 1.3037982 -1.7798654
-34.216404 1.7343106 -1.7799757
-34.206348 2.1649168 -1.7801816
-34.191551 2.5956378 -1.7804846
-34.172176 3.0263536 -1.7808813
-34.148094 3.457027 -1.7813748
-34.119244 3.887758 -1.7819653
-34.085754 4.3183479 -1.7826507
-34.047581 4.7487974 -1.7834322
-34.004768 5.1791258 -1.7843088
-33.957191 5.6092172 -1.7852832
-33.904846 6.0391135 -1.7863549
-33.847916 6.4686718 -1.7875208
-33.786282 6.8978748 -1.788783
-33.719864 7.326745 -1.7901431
-33.648705 7.7552805 -1.7916
-33.572838 8.1832485 -1.7931533
-33.492245 8.6107044 -1.7948034
-33.406937 9.0376892 -1.7965504
